ply
format ascii 1.0
comment VTK generated PLY File
obj_info vtkPolyData points and polygons: vtk4.0
element vertex 817
property float x
property float y
property float z
element face 0
property list uchar int vertex_indices
end_header
-245.13333129882812 -15.503499984741211 434.29632568359375 
-247.06666564941406 -17.041732788085938 431.36300659179688 
-250 -15.464300155639648 433.42965698242188 
-253.39999389648438 -16.292200088500977 431.22967529296875 
-256.33334350585938 -13.72189998626709 435.09634399414062 
-259.13333129882812 -15.10260009765625 431.89633178710938 
-260.66665649414062 -17.875432968139648 426.62966918945312 
-264.06668090820312 -17.674566268920898 426.09634399414062 
-266.60000610351562 -18.366632461547852 424.42965698242188 
-266.13333129882812 -19.455333709716797 422.9630126953125 
-263.86666870117188 -21.239233016967773 421.29632568359375 
-263.33334350585938 -23.5357666015625 418.76300048828125 
-265.33334350585938 -24.124366760253906 417.638671875 
-265.33334350585938 -26.597333908081055 414.857666015625 
-267.20001220703125 -26.933332443237305 414.06100463867188 
-267.5333251953125 -29.200000762939453 411.98333740234375 
-269.33334350585938 -29.866666793823242 410.92300415039062 
-269.4666748046875 -32.666667938232422 408.66299438476562 
-265.93331909179688 -36.733333587646484 406.78399658203125 
-266.5333251953125 -40.066665649414062 404.53799438476562 
-266.79998779296875 -43.466667175292969 402.61834716796875 
-264.86666870117188 -46.333332061767578 402.02267456054688 
-267.06668090820312 -49.533332824707031 400.1756591796875 
-266 -52.466667175292969 399.57598876953125 
-267.5333251953125 -55 398.65133666992188 
-266.73333740234375 -58.000011444091797 398.30499267578125 
-268.33334350585938 -63.20001220703125 397.59234619140625 
-266.79998779296875 -66.000022888183594 397.91799926757812 
-266.39999389648438 -69.266685485839844 398.04299926757812 
-263.93331909179688 -69.333358764648438 398.76901245117188 
-263.86666870117188 -71.733345031738281 399.06732177734375 
-263 -73.666671752929688 399.63232421875 
-263.26666259765625 -76.666664123535156 400.17868041992188 
-263.06668090820312 -78.533332824707031 400.71466064453125 
-261.5333251953125 -79.599998474121094 401.53500366210938 
-261.5333251953125 -83.466667175292969 402.89932250976562 
-259.93331909179688 -85.599998474121094 404.1956787109375 
-257.5333251953125 -85.133331298828125 404.67300415039062 
-256.13333129882812 -86.800003051757812 405.77999877929688 
-258.60000610351562 -87.466667175292969 405.37200927734375 
-260.86666870117188 -88.866668701171875 405.31765747070312 
-258.86666870117188 -90.18609619140625 405.5743408203125 
-250.06666564941406 -89.719436645507812 407.87600708007812 
-247.13333129882812 -91.189102172851562 408.03167724609375 
-243.19999694824219 -92.736335754394531 408.10565185546875 
-240.33332824707031 -94.266670227050781 408.1820068359375 
-236.26666259765625 -92.718666076660156 409.97467041015625 
-232.66667175292969 -90.31866455078125 412.642333984375 
-233.46665954589844 -87.533332824707031 412.54501342773438 
-236.73333740234375 -85.466667175292969 410.79800415039062 
-229.73333740234375 -83.400001525878906 412.17868041992188 
-230.66667175292969 -78.933334350585938 410.38632202148438 
-224.73333740234375 -81.733329772949219 413.10067749023438 
-221.39999389648438 -84 414.7723388671875 
-218.66667175292969 -80.599998474121094 414.34066772460938 
-218.66667175292969 -78.666664123535156 413.73001098632812 
-217.19999694824219 -74.266677856445312 413.31466674804688 
-216 -73.800010681152344 413.53500366210938 
-214.86666870117188 -70.133346557617188 413.18899536132812 
-212.66667175292969 -64.466690063476562 413.1300048828125 
-214.06666564941406 -61.866691589355469 412.70233154296875 
-211.66667175292969 -66.20001220703125 413.63333129882812 
-208.66667175292969 -66.20001220703125 414.4876708984375 
-206.40003967285156 -64.533348083496094 414.91766357421875 
-204.86672973632812 -61.066684722900391 415.35299682617188 
-205.80003356933594 -55.066680908203125 415.64401245117188 
-209.19999694824219 -52.333343505859375 415.25698852539062 
-210.33332824707031 -47 416.06201171875 
-209.33332824707031 -42.866664886474609 418.2413330078125 
-210.80000305175781 -38.133335113525391 420.14633178710938 
-209.73333740234375 -32.733333587646484 423.85165405273438 
-211.80000305175781 -31.600000381469727 424.09799194335938 
-206.86672973632812 -30.133333206176758 426.69232177734375 
-207.26673889160156 -26.107200622558594 429.99301147460938 
-203.86676025390625 -25.290966033935547 431.6300048828125 
-203.66673278808594 -20.575033187866211 438.36300659179688 
-210.73336791992188 -16.423999786376953 442.42965698242188 
-214.73336791992188 -11.642966270446777 449.36300659179688 
-221.26666259765625 -10.877200126647949 449.42965698242188 
-222.13333129882812 -12.238566398620605 446.22967529296875 
-226.19999694824219 -11.129166603088379 447.69631958007812 
-230.60000610351562 -11.773066520690918 445.16299438476562 
-231.53334045410156 -13.358733177185059 441.56298828125 
-237.06666564941406 -13.036199569702148 440.82968139648438 
-238.53334045410156 -13.869899749755859 438.82968139648438 
-241.53334045410156 -13.787599563598633 438.22967529296875 
-242.53334045410156 -12.683066368103027 440.22967529296875 
-245 -12.55286693572998 439.89633178710938 
-246.66667175292969 -13.806133270263672 436.9630126953125 
-249 -13.200833320617676 437.56298828125 
-250.33332824707031 -12.066399574279785 439.496337890625 
-252.66667175292969 -11.555932998657227 440.09634399414062 
-255.13333129882812 -11.473699569702148 439.69631958007812 
-257.79998779296875 -10.810866355895996 440.56298828125 
-260.39999389648438 -11.198033332824707 439.0296630859375 
-260.5333251953125 -13.24156665802002 434.9630126953125 
-262.73333740234375 -13.656332969665527 433.496337890625 
-264.73333740234375 -15.316499710083008 429.89633178710938 
-268.66665649414062 -14.773366928100586 429.82968139648438 
-270.20001220703125 -15.965666770935059 427.22967529296875 
-269.5333251953125 -17.026933670043945 425.69631958007812 
-268.60000610351562 -17.919399261474609 424.56298828125 
-268.13333129882812 -19.008100509643555 423.09634399414062 
-269.86666870117188 -19.317100524902344 422.22967529296875 
-270.26666259765625 -21.346433639526367 419.56298828125 
-268.26666259765625 -23.409933090209961 417.638671875 
-268.60000610351562 -25.882900238037109 414.77532958984375 
-270.39999389648438 -27.08289909362793 413.19168090820312 
-273.86666870117188 -26.279666900634766 413.12167358398438 
-276.26666259765625 -28.196765899658203 410.67098999023438 
-272.93331909179688 -31.799999237060547 408.48098754882812 
-274.79998779296875 -35.400001525878906 405.4630126953125 
-271.93331909179688 -39.599998474121094 403.39898681640625 
-274.4666748046875 -43.133335113525391 400.83267211914062 
-271.5333251953125 -45.066665649414062 400.64898681640625 
-271.5333251953125 -47.599998474121094 399.63766479492188 
-269 -49.200000762939453 399.760009765625 
-268.79998779296875 -53.466667175292969 398.70132446289062 
-270.06668090820312 -55.600006103515625 397.89767456054688 
-270.39999389648438 -62.333343505859375 397.135009765625 
-272.26666259765625 -65.666679382324219 396.50634765625 
-272.5333251953125 -72 396.66165161132812 
-271.13333129882812 -75.066673278808594 397.5889892578125 
-268.39999389648438 -72.866676330566406 398.0159912109375 
-266.06668090820312 -74.200004577636719 398.8936767578125 
-265.86666870117188 -77.400001525878906 399.59933471679688 
-267.66665649414062 -79.866668701171875 399.76400756835938 
-265.06668090820312 -83 401.70767211914062 
-263.06668090820312 -82.400001525878906 402.07901000976562 
-267 -84.066665649414062 401.53399658203125 
-267.93331909179688 -86 402.09832763671875 
-265.39999389648438 -87.733329772949219 403.56500244140625 
-260.86666870117188 -87.333335876464844 404.6683349609375 
-266.39999389648438 -88.800003051757812 403.72467041015625 
-269.33334350585938 -89.733329772949219 403.27032470703125 
-266.5333251953125 -93.333335876464844 403.00100708007812 
-261.60000610351562 -93.719436645507812 403.71200561523438 
-254.73333740234375 -95.719436645507812 403.95233154296875 
-249.06666564941406 -93.655769348144531 405.9703369140625 
-268 -95.666664123535156 401.0186767578125 
-271.26666259765625 -93.133331298828125 401.58401489257812 
-275.13333129882812 -93.472335815429688 400.36166381835938 
-275.26666259765625 -95.205665588378906 398.5159912109375 
-275.39999389648438 -96.44403076171875 396.18267822265625 
-279.79998779296875 -94.516365051269531 396.39801025390625 
-283.39999389648438 -90.71636962890625 396.30734252929688 
-284.73333740234375 -86.777366638183594 394.56900024414062 
-284.73333740234375 -80.666664123535156 395.21365356445312 
-283.66665649414062 -74.000007629394531 394.16232299804688 
-283.33334350585938 -68.800010681152344 393.86566162109375 
-283.79998779296875 -66.66668701171875 393.94168090820312 
-281.06668090820312 -60.266681671142578 394.0533447265625 
-279 -59.066684722900391 394.7686767578125 
-278.13333129882812 -54.266681671142578 396.17233276367188 
-279 -48.266677856445312 398.03533935546875 
-281.5333251953125 -45.000011444091797 399.13134765625 
-280.93331909179688 -36.799999237060547 402.81167602539062 
-282.86666870117188 -32.281833648681641 405.75201416015625 
-286 -28.18476676940918 408.90267944335938 
-287.33334350585938 -23.275733947753906 412.9630126953125 
-288.26666259765625 -20.364200592041016 416.29632568359375 
-288.93331909179688 -18.17213249206543 419.36300659179688 
-291.4666748046875 -16.491399765014648 421.82968139648438 
-291 -14.32646656036377 425.22967529296875 
-290.66665649414062 -13.937166213989258 426.0296630859375 
-291.33334350585938 -12.930966377258301 427.9630126953125 
-291.66665649414062 -11.590700149536133 430.9630126953125 
-292.79998779296875 -9.7922334671020508 432.67434692382812 
-290.33334350585938 -8.6596002578735352 436.0743408203125 
-291.4666748046875 -7.2902665138244629 436.33401489257812 
-288.33334350585938 -7.3569331169128418 437.239990234375 
-287.86666870117188 -6.1333332061767578 437.16732788085938 
-281.26666259765625 -6 438.96234130859375 
-275.26666259765625 -6.7333331108093262 440.94232177734375 
-267.66665649414062 -6 442.79531860351562 
-264.13333129882812 -6.5333333015441895 443.996337890625 
-260.26666259765625 -5.4666666984558105 444.66400146484375 
-257.60000610351562 -6 445.61834716796875 
-254.86666870117188 -5.3333334922790527 446.13198852539062 
-253.66667175292969 -4.8666667938232422 446.29367065429688 
-252.93333435058594 -5.3333334922790527 446.67666625976562 
-250.13333129882812 -6.4144001007080078 447.70733642578125 
-245.19999694824219 -6.0810666084289551 448.96865844726562 
-239.53334045410156 -7.6403999328613281 449.98233032226562 
-230.80000305175781 -7.2926664352416992 452.50167846679688 
-226.93333435058594 -5.5999999046325684 454.11767578125 
-220.53334045410156 -5.7333331108093262 455.9703369140625 
-220.73333740234375 -4.8666667938232422 455.56033325195312 
-219.53334045410156 -4.7333331108093262 455.84500122070312 
-218.60000610351562 -5.3333334922790527 456.33932495117188 
-218.39999389648438 -6.1999998092651367 456.74932861328125 
-215.86666870117188 -6.2666668891906738 457.48532104492188 
-212.06666564941406 -5.4666666984558105 458.22500610351562 
-209.46665954589844 -5.8000001907348633 459.08334350585938 
-205.26669311523438 -4.8000001907348633 459.88067626953125 
-204.3333740234375 -5.8193998336791992 460.08834838867188 
-199.26673889160156 -6.4018664360046387 461.40667724609375 
-194.53346252441406 -5.04913330078125 462.66400146484375 
-190.80014038085938 -6.4375333786010742 464.15365600585938 
-188.13346862792969 -5.1217331886291504 464.732666015625 
-182.40010070800781 -6.2773666381835938 466.40866088867188 
-176.26679992675781 -6.3810667991638184 467.60867309570312 
-168.53349304199219 -7.3144001960754395 470.15966796875 
-162.06683349609375 -8.6232662200927734 468.75967407226562 
-157.53346252441406 -8.8509998321533203 469.226318359375 
-158.00013732910156 -7.5131001472473145 472.09298706054688 
-156.60012817382812 -6.793266773223877 473.79666137695312 
-156.86680603027344 -6.0666666030883789 474.04965209960938 
-153.0667724609375 -5.9333333969116211 475.07699584960938 
-152.80009460449219 -6.6599335670471191 474.82400512695312 
-153.13343811035156 -7.7335667610168457 472.58700561523438 
-147.73342895507812 -7.7202668190002441 473.85366821289062 
-142.13343811035156 -5.8466334342956543 477.24533081054688 
-135.40010070800781 -6.4843335151672363 477.621337890625 
-131.80009460449219 -5.1043667793273926 478.95999145507812 
-125.26676940917969 -5.9811000823974609 480.76834106445312 
-122.86676788330078 -4.3434000015258789 482.56698608398438 
-119.60013580322266 -4.5433998107910156 483.56500244140625 
-120.93346405029297 -3.4000000953674316 483.121337890625 
-116.00015258789062 -3.7999999523162842 484.6646728515625 
-109.33346557617188 -2.7333333492279053 486.14166259765625 
-103.60014343261719 -3.0666666030883789 487.88568115234375 
-100.53347015380859 -2.2000000476837158 488.41632080078125 
-98.600143432617188 -1.3333333730697632 488.63232421875 
-93.666793823242188 -1.0666667222976685 489.91534423828125 
-89.933448791503906 -2.4000000953674316 491.4840087890625 
-84.933433532714844 -2.4000000953674316 492.88400268554688 
-82.200103759765625 -3.3333332538604736 494.01998901367188 
-76.466766357421875 -3.1333334445953369 495.54632568359375 
-71.60009765625 -2.6666667461395264 496.72833251953125 
-65.133430480957031 -3.9484000205993652 498.878662109375 
-60.200099945068359 -2.8817334175109863 499.85000610351562 
-57.000099182128906 -3.8951001167297363 500.64300537109375 
-53.533432006835938 -2.2800333499908447 501.169677734375 
-48.400100708007812 -3.7048666477203369 502.822998046875 
-42.400100708007812 -1.624833345413208 504.23001098632812 
-36.066764831542969 -1.624833345413208 506.01400756835938 
-32.733432769775391 -0.26666668057441711 506.77700805664062 
-28.53343391418457 0 507.86334228515625 
-25.40013313293457 -1.2666666507720947 509.21865844726562 
-21.333467483520508 -1.7333333492279053 510.5469970703125 
-17.466766357421875 -2.3893332481384277 510.98468017578125 
-14.000100135803223 -3.4962000846862793 510.42666625976562 
-12.200099945068359 -5.6508331298828125 509.42965698242188 
-10.933433532714844 -6.7477998733520508 506.29632568359375 
-8.8001337051391602 -9.1019668579101562 501.89633178710938 
-8.2001333236694336 -11.913599967956543 497.76300048828125 
-9.0668001174926758 -15.252300262451172 491.09634399414062 
-9.4001331329345703 -16.815433502197266 489.09634399414062 
-8.8001670837402344 -21.303199768066406 485.23468017578125 
-6.8667664527893066 -26.564599990844727 481.6893310546875 
-4.6000332832336426 -29.297933578491211 480.84268188476562 
-4.6667332649230957 -37.066665649414062 475.38967895507812 
-3.5334000587463379 -39.266666412353516 474.71133422851562 
-5.0001001358032227 -42.466667175292969 473.26934814453125 
-4.5334000587463379 -47.333339691162109 472.30767822265625 
-3.4667000770568848 -51.866680145263672 472.0953369140625 
-1.5333333015441895 -55.733348846435547 472.58734130859375 
-3.5333666801452637 -63.200023651123047 470.878662109375 
-4.466733455657959 -67.466690063476562 471.05398559570312 
-3.0666999816894531 -71.466682434082031 471.94866943359375 
-1.3999999761581421 -75.960372924804688 473.86932373046875 
0 -80.838508605957031 473.50698852539062 
-2.20003342628479 -88.536163330078125 472.9630126953125 
-5.8667335510253906 -88.352836608886719 472.69631958007812 
-9.6000995635986328 -89.162834167480469 469.89633178710938 
-11.600099563598633 -88.065170288085938 471.15499877929688 
-14.466799736022949 -87.237030029296875 471.80465698242188 
-17.333499908447266 -87.848731994628906 470.54598999023438 
-17.933465957641602 -89.115402221679688 468.38833618164062 
-12.400099754333496 -89.578300476074219 467.788330078125 
-24.133499145507812 -88.955329895019531 467.2550048828125 
-30.933465957641602 -90.410301208496094 464.13433837890625 
-36.133464813232422 -89.720703125 464.57565307617188 
-42.133464813232422 -89.377067565917969 464.239013671875 
-46.866798400878906 -89.333335876464844 463.11932373046875 
-45.400100708007812 -90.666664123535156 461.67666625976562 
-49.000099182128906 -89.266670227050781 462.434326171875 
-53.000099182128906 -89.771896362304688 460.28732299804688 
-57.866767883300781 -91.171897888183594 457.14132690429688 
-64.133468627929688 -90.043731689453125 457.05398559570312 
-67.466796875 -89.80889892578125 456.920654296875 
-72.933433532714844 -91.2037353515625 453.79165649414062 
-76.400100708007812 -90.188735961914062 454.03399658203125 
-82.333465576171875 -89.9183349609375 452.68399047851562 
-84.000129699707031 -90.933334350585938 450.99667358398438 
-87.600135803222656 -90.933334350585938 449.99700927734375 
-91.000167846679688 -89.599998474121094 450.99365234375 
-93.866813659667969 -90.220802307128906 449.34365844726562 
-96.26678466796875 -90.799766540527344 447.56765747070312 
-98.800125122070312 -91.078865051269531 446.23434448242188 
-107.33345794677734 -89.412200927734375 445.73965454101562 
-113.13344573974609 -89.565864562988281 444.00634765625 
-114.93344879150391 -91.365867614746094 441.63433837890625 
-121.26676940917969 -91.043769836425781 441.03433227539062 
-124.66676330566406 -90.69256591796875 441.16766357421875 
-127.46676635742188 -90.695732116699219 440.50100708007812 
-128.73342895507812 -90.894302368164062 439.70098876953125 
-127.60009765625 -91.580001831054688 438.24301147460938 
-133.73342895507812 -90.5823974609375 437.83834838867188 
-137.00010681152344 -90.822502136230469 436.30499267578125 
-139.13346862792969 -91.334800720214844 434.43832397460938 
-146.13346862792969 -90.6990966796875 434.36300659179688 
-149.53346252441406 -90.698265075683594 433.69631958007812 
-154.8001708984375 -92.267303466796875 430.51666259765625 
-160.13349914550781 -91.552597045898438 430.94100952148438 
-166.93353271484375 -91.199996948242188 430.06365966796875 
-172.13349914550781 -92.733329772949219 426.7586669921875 
-177.66679382324219 -91.8009033203125 425.73834228515625 
-183.93342590332031 -92.529067993164062 422.54901123046875 
-188.66676330566406 -90.529067993164062 422.96066284179688 
-193.0667724609375 -90.571098327636719 421.82733154296875 
-194.80014038085938 -91.902099609375 419.9630126953125 
-199.00013732910156 -91.840866088867188 419.16299438476562 
-203.93342590332031 -92.597930908203125 417.1806640625 
-208.00003051757812 -92.118568420410156 417.51400756835938 
-212.80000305175781 -91.9443359375 416.91400146484375 
-216.73333740234375 -93.492698669433594 414.1199951171875 
-218.19999694824219 -95 412.22933959960938 
-220.60000610351562 -94.026031494140625 413.14498901367188 
-222.53334045410156 -92.159370422363281 414.34967041015625 
-229.13333129882812 -94.066665649414062 411.15933227539062 
-232.39999389648438 -92.851997375488281 411.11666870117188 
-219.93333435058594 -90.292701721191406 416.9493408203125 
-219.73333740234375 -87.800003051757812 416.58999633789062 
-213.60000610351562 -86.666664123535156 417.92367553710938 
-212.66667175292969 -83.133331298828125 416.93865966796875 
-215.13333129882812 -80.133331298828125 415.23931884765625 
-217 -79.599998474121094 414.54531860351562 
-217.93333435058594 -80.333335876464844 414.47933959960938 
-214.06666564941406 -77.533332824707031 414.76666259765625 
-214.80000305175781 -73.333335876464844 413.72665405273438 
-213.26666259765625 -71.400001525878906 413.7486572265625 
-212.53334045410156 -75.600006103515625 414.78866577148438 
-210.19999694824219 -76.533340454101562 415.711669921875 
-207.93333435058594 -72.400009155273438 415.53231811523438 
-207.19999694824219 -68.4666748046875 414.97967529296875 
-204.93336486816406 -66.800010681152344 415.40966796875 
-203.93339538574219 -67.000015258789062 415.7139892578125 
-201.93342590332031 -65.20001220703125 416.184326171875 
-201.40010070800781 -61.533348083496094 416.31533813476562 
-197.40010070800781 -59.266681671142578 417.3736572265625 
-197.0667724609375 -54.000011444091797 418.32266235351562 
-200.46676635742188 -49.066669464111328 418.36099243164062 
-203.60006713867188 -49.933338165283203 417.25167846679688 
-206.00003051757812 -43.066665649414062 419.04400634765625 
-202.93342590332031 -37.266666412353516 422.87033081054688 
-203.06680297851562 -31.133333206176758 426.81033325195312 
-200.53349304199219 -28.533332824707031 429.41000366210938 
-200.9334716796875 -26.717100143432617 430.92898559570312 
-199.33343505859375 -26.516332626342773 431.52865600585938 
-197.53343200683594 -24.840032577514648 433.69631958007812 
-196.40010070800781 -22.167034149169922 437.29632568359375 
-199.0667724609375 -18.594066619873047 442.09634399414062 
-196.73342895507812 -15.710399627685547 446.36300659179688 
-195.66676330566406 -13.586700439453125 450.36300659179688 
-195.80009460449219 -11.431866645812988 454.29632568359375 
-200.33340454101562 -10.315400123596191 455.82968139648438 
-209.66670227050781 -9.9629669189453125 454.42965698242188 
-212.39999389648438 -8.2122335433959961 457.2349853515625 
-217.13333129882812 -7.992833137512207 456.28765869140625 
-224.66667175292969 -8.752166748046875 453.28231811523438 
-225.53334045410156 -9.6037998199462891 451.29632568359375 
-229.53334045410156 -9.7342996597290039 450.0296630859375 
-234.06666564941406 -9.6540670394897461 449.16299438476562 
-234.73333740234375 -10.523599624633789 446.89633178710938 
-236 -11.001899719238281 445.42965698242188 
-237.39999389648438 -11.9288330078125 442.9630126953125 
-239.19999694824219 -11.202799797058105 444.22967529296875 
-241.26666259765625 -11.159199714660645 443.82968139648438 
-243.19999694824219 -9.8086004257202148 446.62966918945312 
-245.46665954589844 -10.240866661071777 445.0296630859375 
-246 -11.46126651763916 441.89633178710938 
-249 -11.580100059509277 440.89633178710938 
-251.33332824707031 -11.069633483886719 441.496337890625 
-249.33332824707031 -10.073833465576172 444.496337890625 
-254.26666259765625 -8.8053998947143555 445.28533935546875 
-258.86666870117188 -9.4828996658325195 442.41867065429688 
-263.33334350585938 -8.5585670471191406 442.99267578125 
-264.20001220703125 -9.9476003646850586 440.5369873046875 
-262.33334350585938 -11.259099960327148 438.42965698242188 
-264.39999389648438 -11.909933090209961 436.42965698242188 
-269.06668090820312 -12.256567001342773 434.56298828125 
-271.33334350585938 -13.459833145141602 431.56298828125 
-274.4666748046875 -13.941432952880859 429.82968139648438 
-272.93331909179688 -15.772466659545898 427.0296630859375 
-271.33334350585938 -16.483165740966797 426.16299438476562 
-270.66665649414062 -17.54443359375 424.62966918945312 
-271.4666748046875 -18.745899200439453 422.62966918945312 
-274.39999389648438 -18.839166641235352 421.76300048828125 
-276.33334350585938 -19.445566177368164 420.42965698242188 
-273.79998779296875 -21.381633758544922 418.62966918945312 
-275.39999389648438 -22.155933380126953 417.22967529296875 
-275.66665649414062 -23.79046630859375 415.22967529296875 
-279.39999389648438 -22.554233551025391 415.76300048828125 
-281.60000610351562 -24.058599472045898 413.56298828125 
-281.06668090820312 -26.611932754516602 410.906005859375 
-279.06668090820312 -27.79676628112793 410.32199096679688 
-279.93331909179688 -30.666666030883789 407.57131958007812 
-279 -34.666667938232422 404.90234375 
-279.06668090820312 -38 402.54598999023438 
-277.39999389648438 -42.266666412353516 400.54034423828125 
-281.93331909179688 -29.481832504272461 408.15533447265625 
-284.66665649414062 -23.019466400146484 413.9630126953125 
-284.93331909179688 -20.726900100708008 416.56298828125 
-286.5333251953125 -19.783866882324219 417.496337890625 
-285.60000610351562 -18.6156005859375 419.29632568359375 
-286.86666870117188 -17.031000137329102 421.496337890625 
-288.4666748046875 -16.007200241088867 422.76300048828125 
-287.33334350585938 -15.836966514587402 423.42965698242188 
-285.93331909179688 -15.419666290283203 424.56298828125 
-287.13333129882812 -13.493866920471191 427.69631958007812 
-288.60000610351562 -13.082066535949707 428.22967529296875 
-289.4666748046875 -12.816967010498047 428.62966918945312 
-289.79998779296875 -11.476699829101562 431.62966918945312 
-288.86666870117188 -11.689167022705078 431.36300659179688 
-287.39999389648438 -12.100966453552246 430.82968139648438 
-287.13333129882812 -11.046966552734375 433.56298828125 
-284.5333251953125 -12.148799896240234 431.56298828125 
-282.5333251953125 -11.737667083740234 432.89633178710938 
-277.93331909179688 -9.8664999008178711 437.73699951171875 
-280 -7.9569334983825684 439.82101440429688 
-274.26666259765625 -11.034366607666016 435.67031860351562 
-269.73333740234375 -10.713833808898926 437.4703369140625 
-276.73333740234375 -13.058699607849121 431.0296630859375 
-278.5333251953125 -13.271733283996582 430.16299438476562 
-279.5333251953125 -14.313366889953613 427.89633178710938 
-278.5333251953125 -15.989033699035645 425.29632568359375 
-275.20001220703125 -16.927000045776367 424.62966918945312 
-279.93331909179688 -17.88640022277832 421.89633178710938 
-278.5333251953125 -19.430767059326172 419.89633178710938 
-278.20001220703125 -20.594734191894531 418.42965698242188 
-279.79998779296875 -20.745832443237305 417.82968139648438 
-282.13333129882812 -19.557733535766602 418.82968139648438 
-283.79998779296875 -19.495700836181641 418.496337890625 
-283.93331909179688 -19.895599365234375 417.89633178710938 
-284.73333740234375 -19.171632766723633 418.69631958007812 
-281.93331909179688 -17.862266540527344 421.42965698242188 
-283.66665649414062 -15.86126708984375 424.29632568359375 
-282.66665649414062 -14.209733009338379 427.36300659179688 
-287 -12.928533554077148 428.89633178710938 
-288.4666748046875 -12.516733169555664 429.42965698242188 
-254.13333129882812 -7.28106689453125 446.91000366210938 
-240.86666870117188 -9.3552999496459961 448.29632568359375 
-238.39999389648438 -9.2117996215820312 449.29632568359375 
-237.80000305175781 -10.275866508483887 446.69631958007812 
-214 -6.9333333969116211 458.267333984375 
-210.33332824707031 -6.4666666984558105 459.09634399414062 
-208.33332824707031 -7.086066722869873 459.45001220703125 
-197.06672668457031 -9.3616666793823242 458.69631958007812 
-197.26673889160156 -8.4655332565307617 460.82968139648438 
-192.26676940917969 -8.610966682434082 461.62966918945312 
-190.73345947265625 -8.0649662017822266 463.36300659179688 
-189.80014038085938 -7.6885333061218262 464.496337890625 
-186.60012817382812 -7.9014334678649902 464.69631958007812 
-183.46676635742188 -8.0331335067749023 465.09634399414062 
-180.20010375976562 -7.7267332077026367 466.62966918945312 
-176.00010681152344 -8.1236667633056641 466.62966918945312 
-176.53343200683594 -9.2446002960205078 463.89633178710938 
-173.86676025390625 -10.367033004760742 462.0296630859375 
-171.73345947265625 -9.3158998489379883 464.9630126953125 
-168.06680297851562 -11.430932998657227 461.62966918945312 
-162.66679382324219 -11.390299797058105 463.0296630859375 
-158.20010375976562 -14.038800239562988 458.76300048828125 
-154.66676330566406 -13.405699729919434 460.76300048828125 
-152.60009765625 -12.553933143615723 462.76300048828125 
-152.33343505859375 -11.476633071899414 464.9630126953125 
-153.86680603027344 -10.44556713104248 466.62966918945312 
-154.86680603027344 -9.975433349609375 467.42965698242188 
-154.13346862792969 -9.3178997039794922 468.9630126953125 
-154.73342895507812 -8.453399658203125 470.82968139648438 
-153.13346862792969 -9.7880334854125977 468.16299438476562 
-149.53343200683594 -10.480966567993164 467.62966918945312 
-145.26676940917969 -9.6709671020507812 470.496337890625 
-140.33343505859375 -10.268433570861816 470.42965698242188 
-138.26679992675781 -9.8721332550048828 471.69631958007812 
-137.60012817382812 -9.6511669158935547 472.29632568359375 
-135.80009460449219 -9.1152000427246094 473.82968139648438 
-134.13343811035156 -8.3027667999267578 475.9630126953125 
-130.33343505859375 -8.8758335113525391 475.496337890625 
-125.53343200683594 -8.5255670547485352 477.36300659179688 
-121.40010070800781 -7.6492667198181152 480.42965698242188 
-116.40010070800781 -7.948033332824707 480.89633178710938 
-112.33345031738281 -8.3288002014160156 480.9630126953125 
-108.53347015380859 -8.0022668838500977 482.56298828125 
-107.20013427734375 -7.2218999862670898 484.69631958007812 
-108.66680145263672 -6.0119667053222656 485.9716796875 
-114.66681671142578 -4.9433999061584473 485.10833740234375 
-102.93347930908203 -5.4018998146057129 487.73001098632812 
-103.46680450439453 -4.4000000953674316 488.43032836914062 
-100.40013122558594 -3.5333333015441895 488.96099853515625 
-98.466796875 -2.6666667461395264 489.177001953125 
-94.666786193847656 -3.5999999046325684 490.6199951171875 
-92.666778564453125 -5.340766429901123 490.83700561523438 
-88.60009765625 -6.0588665008544922 491.01199340820312 
-84.066764831542969 -5.9375 492.3453369140625 
-80.666763305664062 -4.9527335166931152 494.17031860351562 
-75.866767883300781 -5.3620333671569824 495.121337890625 
-73.666763305664062 -4.6093001365661621 496.36334228515625 
-69.066764831542969 -5.0910334587097168 497.67166137695312 
-67.733436584472656 -6.1385002136230469 496.36300659179688 
-63.400100708007812 -6.182833194732666 497.22967529296875 
-58.533432006835938 -5.6153998374938965 499.9630126953125 
-56.600101470947266 -6.1662335395812988 498.82968139648438 
-52.000133514404297 -6.5149998664855957 498.76300048828125 
-48.000167846679688 -6.4851665496826172 499.69631958007812 
-45.933467864990234 -5.8409333229064941 502.09634399414062 
-41.400135040283203 -6.3215665817260742 501.56298828125 
-36.400135040283203 -6.0691332817077637 503.29632568359375 
-31.800167083740234 -4.7751331329345703 506.59201049804688 
-32.066799163818359 -3.0915000438690186 507.68832397460938 
-34.866767883300781 -2.2248332500457764 506.57000732421875 
-26.800167083740234 -5.1739001274108887 506.2586669921875 
-23.466833114624023 -5.2318668365478516 506.65866088867188 
-19.333499908447266 -4.7975997924804688 508.99200439453125 
-18.866800308227539 -3.5226666927337646 511.01666259765625 
-16.133466720581055 -5.8189001083374023 507.9630126953125 
-17.666833877563477 -6.4334664344787598 505.56298828125 
-14.200133323669434 -7.1114997863769531 504.36300659179688 
-12.06683349609375 -9.4656667709350586 499.9630126953125 
-14.333499908447266 -11.300266265869141 496.36300659179688 
-11.933466911315918 -14.275266647338867 491.62966918945312 
-12.266799926757812 -15.838399887084961 489.62966918945312 
-12.866800308227539 -17.859500885009766 487.350341796875 
-10.400166511535645 -23.005266189575195 483.08865356445312 
-11.733499526977539 -27.933332443237305 478.84201049804688 
-10.266833305358887 -31.733333587646484 476.5543212890625 
-7.0001001358032227 -32.066665649414062 477.25567626953125 
-6.6667666435241699 -35.666667938232422 475.531005859375 
-9.1334667205810547 -37.466667175292969 474.02633666992188 
-10.333466529846191 -40.200000762939453 472.49398803710938 
-9.7334671020507812 -42.933334350585938 471.81765747070312 
-8.0001335144042969 -44.799999237060547 471.76666259765625 
-8.4000997543334961 -49 470.64065551757812 
-8.0001001358032227 -50.933334350585938 470.42633056640625 
-7.1334333419799805 -51.600006103515625 470.59066772460938 
-7.6001334190368652 -54.066677093505859 470.07000732421875 
-6.6668000221252441 -55.733348846435547 470.184326171875 
-5.1333999633789062 -57.800018310546875 470.49267578125 
-5.2000665664672852 -60.466686248779297 470.375 
-6.5334334373474121 -60.600021362304688 470.00833129882812 
-7.4001002311706543 -62.200016021728516 469.75732421875 
-7.0001001358032227 -66.333343505859375 470.29934692382812 
-9.1334333419799805 -70.000007629394531 470.16900634765625 
-9.5334329605102539 -74.666679382324219 470.78466796875 
-7.4001002311706543 -75.666671752929688 471.61566162109375 
-5.0667333602905273 -74.933334350585938 472.0396728515625 
-5.1333999633789062 -76.533332824707031 472.46600341796875 
-4.8667664527893066 -77.400001525878906 472.82034301757812 
-4.4000668525695801 -79.599998474121094 473.8380126953125 
-2.7999999523162842 -82.160369873046875 475.1820068359375 
-6.4000334739685059 -85.960365295410156 475.61166381835938 
-7.8667335510253906 -87.255165100097656 473.95498657226562 
-8.0001001358032227 -83.400001525878906 474.26766967773438 
-9.5334663391113281 -80.733329772949219 472.81600952148438 
-11.933433532714844 -78.866676330566406 471.63067626953125 
-14.733467102050781 -82.000007629394531 472.07534790039062 
-17.333467483520508 -79.133338928222656 470.24234008789062 
-23.666799545288086 -82.533332824707031 469.62899780273438 
-28.40013313293457 -86.043731689453125 469.336669921875 
-25.000165939331055 -87.388763427734375 470.14599609375 
-29.333499908447266 -88.265731811523438 467.69631958007812 
-35.200099945068359 -84.977066040039062 467.00299072265625 
-38.933433532714844 -85.243736267089844 466.08132934570312 
-42.466800689697266 -86.843734741210938 465.628662109375 
-45.533466339111328 -85.733329772949219 464.65133666992188 
-47.600131988525391 -86.800003051757812 464.39599609375 
-46.400100708007812 -85.333335876464844 464.25201416015625 
-49.133434295654297 -84.133331298828125 463.04266357421875 
-52.200099945068359 -85.333335876464844 462.6583251953125 
-52.33343505859375 -87.666664123535156 463.34866333007812 
-56.933467864990234 -87.871833801269531 461.86834716796875 
-59.266799926757812 -88.643730163574219 460.20001220703125 
-59.266799926757812 -86.205169677734375 460.72967529296875 
-64.266799926757812 -85.071830749511719 458.89599609375 
-68.533470153808594 -86.205169677734375 458.135009765625 
-69.20013427734375 -87.875564575195312 458.1669921875 
-74.133430480957031 -88.1220703125 456.36700439453125 
-80.066802978515625 -87.851669311523438 455.01699829101562 
-80.000129699707031 -86.466667175292969 455.37832641601562 
-82.533470153808594 -85.666664123535156 454.371337890625 
-84.666831970214844 -83.666664123535156 453.13134765625 
-87.800163269042969 -83.666664123535156 452.26565551757812 
-90.800163269042969 -86.733329772949219 452.45367431640625 
-92.266799926757812 -85.400001525878906 451.56399536132812 
-96.533485412597656 -85.733329772949219 450.51199340820312 
-104.00015258789062 -87 448.9283447265625 
-102.400146484375 -88.554130554199219 448.8489990234375 
-104.80011749267578 -89.133102416992188 447.072998046875 
-108.66680145263672 -83.666664123535156 446.52932739257812 
-111.40012359619141 -79.800003051757812 444.63433837890625 
-114.20011138916016 -77.466682434082031 443.32266235351562 
-119.20010375976562 -80.533340454101562 442.75399780273438 
-123.86676788330078 -86.066665649414062 443.06600952148438 
-124.60009765625 -88.314765930175781 443.3836669921875 
-122.86676788330078 -88.892562866210938 443.5396728515625 
-119.46676635742188 -89.243766784667969 443.40634155273438 
-130.20010375976562 -88.96240234375 441.60699462890625 
-132.66676330566406 -88.047630310058594 440.86099243164062 
-136.0667724609375 -88.783363342285156 439.350341796875 
-134.86676025390625 -89.896697998046875 439.29632568359375 
-140.40010070800781 -87.735733032226562 438.10699462890625 
-145.40010070800781 -88.766700744628906 436.78634643554688 
-144.00010681152344 -90.186798095703125 436.22967529296875 
-148.93342590332031 -87.897636413574219 436.25332641601562 
-151.73345947265625 -88.230964660644531 435.61334228515625 
-155.66683959960938 -88.897636413574219 434.70401000976562 
-154.86680603027344 -89.983566284179688 434.12066650390625 
-158.60020446777344 -88.266670227050781 433.94168090820312 
-163.00016784667969 -87.599998474121094 432.4813232421875 
-166.26679992675781 -87.466667175292969 431.5223388671875 
-167.86683654785156 -88.866668701171875 431.52200317382812 
-172.06680297851562 -88.400001525878906 430.24734497070312 
-177.73345947265625 -88.400001525878906 428.66500854492188 
-180.40013122558594 -89.600898742675781 426.648681640625 
-187.00010681152344 -89.06756591796875 424.65701293945312 
-188.73342895507812 -84 424.19033813476562 
-192.60009765625 -82.333335876464844 422.50033569335938 
-196.13343811035156 -85.733329772949219 422.57366943359375 
-200.06672668457031 -88.451629638671875 422.2340087890625 
-199.2000732421875 -90.161231994628906 421.49398803710938 
-203.06672668457031 -91.361503601074219 419.496337890625 
-204.00006103515625 -88.0516357421875 420.97567749023438 
-207.3333740234375 -87.918296813964844 419.98001098632812 
-210.93333435058594 -88.984970092773438 419.34967041015625 
-214.06666564941406 -90.611000061035156 418.53866577148438 
-205.86669921875 -86.400001525878906 420.04067993164062 
-207 -83.666664123535156 418.79232788085938 
-209.26666259765625 -81.466667175292969 417.38900756835938 
-205.26669311523438 -83.333335876464844 419.16134643554688 
-204.53340148925781 -79.666664123535156 418.2376708984375 
-205.06669616699219 -73.600006103515625 416.60232543945312 
-203.33340454101562 -69.866676330566406 416.35400390625 
-201.26676940917969 -69.733345031738281 416.92868041992188 
-200.00010681152344 -65.266685485839844 416.739990234375 
-196.86676025390625 -62.66668701171875 417.51934814453125 
-194.00010681152344 -62.933349609375 418.3280029296875 
-191.40010070800781 -59.666675567626953 419.03533935546875 
-193.93342590332031 -54.133338928222656 419.1756591796875 
-194.33343505859375 -49.133335113525391 420.03433227539062 
-195.13343811035156 -44.266666412353516 421.04867553710938 
-195.0667724609375 -42.666667938232422 421.77133178710938 
-195.20010375976562 -41.533332824707031 422.29232788085938 
-196.73345947265625 -38.599998474121094 423.76998901367188 
-199.73345947265625 -40.599998474121094 422.06832885742188 
-195.00013732910156 -36.400001525878906 425.18331909179688 
-196.13349914550781 -32.200000762939453 427.98800659179688 
-198.53349304199219 -28.466667175292969 429.976318359375 
-198.60012817382812 -26.732566833496094 431.49533081054688 
-196.80014038085938 -25.056266784667969 433.66299438476562 
-191.9334716796875 -26.323699951171875 433.73001098632812 
-189.0667724609375 -25.333866119384766 435.49667358398438 
-192.80009460449219 -21.3934326171875 439.0296630859375 
-192.0667724609375 -19.369832992553711 441.9630126953125 
-189.20010375976562 -19.360700607299805 442.69631958007812 
-188.66676330566406 -17.075532913208008 445.9630126953125 
-190.46676635742188 -14.960967063903809 449.22967529296875 
-188.86676025390625 -13.572099685668945 452.0296630859375 
-189.13343811035156 -11.913299560546875 454.9630126953125 
-190.86676025390625 -11.147333145141602 456.09634399414062 
-191.20010375976562 -10.475132942199707 457.496337890625 
-190.40010070800781 -9.828033447265625 459.22967529296875 
-188.86680603027344 -9.2820329666137695 460.9630126953125 
-186.66679382324219 -9.2459001541137695 461.56298828125 
-185.93342590332031 -10.634467124938965 458.56298828125 
-182.86676025390625 -10.71833324432373 459.16299438476562 
-180.46676635742188 -9.4614667892456055 462.56298828125 
-177.73342895507812 -10.276000022888184 461.36300659179688 
-177.00010681152344 -12.160699844360352 457.56298828125 
-173.86680603027344 -12.850333213806152 457.0296630859375 
-171.9334716796875 -12.088067054748535 458.9630126953125 
-168.06680297851562 -13.445199966430664 457.36300659179688 
-167.20016479492188 -15.168733596801758 454.496337890625 
-163.73345947265625 -16.929599761962891 452.496337890625 
-159.60009765625 -16.574867248535156 454.09634399414062 
-155.20010375976562 -18.121433258056641 452.76300048828125 
-153.40010070800781 -16.121467590332031 456.496337890625 
-151.33343505859375 -15.269700050354004 458.496337890625 
-148.40010070800781 -16.124834060668945 457.69631958007812 
-145.93342590332031 -13.628600120544434 462.42965698242188 
-148.60009765625 -11.6961669921875 465.42965698242188 
-141.60009765625 -15.334400177001953 460.62966918945312 
-139.26676940917969 -13.883099555969238 463.82968139648438 
-136.66676330566406 -13.382533073425293 465.42965698242188 
-136.86680603027344 -10.942299842834473 469.62966918945312 
-132.66676330566406 -17.462900161743164 460.16299438476562 
-129.73342895507812 -14.660099983215332 465.82968139648438 
-131.80009460449219 -9.9270668029785156 472.89633178710938 
-129.40010070800781 -9.429966926574707 474.496337890625 
-126.60009765625 -9.8623332977294922 474.22967529296875 
-123.13343048095703 -9.3386669158935547 476.16299438476562 
-119.66676330566406 -9.9377670288085938 475.69631958007812 
-117.06676483154297 -9.4234333038330078 477.36300659179688 
-115.93344879150391 -10.06309986114502 476.22967529296875 
-111.66680145263672 -9.5599002838134766 478.22967529296875 
-109.26680755615234 -10.828399658203125 476.22967529296875 
-105.53347015380859 -11.001667022705078 476.69631958007812 
-102.86680603027344 -9.8213329315185547 479.62966918945312 
-103.33348083496094 -8.9501667022705078 481.42965698242188 
-101.53347015380859 -8.5627002716064453 482.69631958007812 
-101.80014801025391 -7.806633472442627 484.42965698242188 
-97.400123596191406 -7.3374667167663574 486.62966918945312 
-97.066795349121094 -6.1426668167114258 488.6546630859375 
-94.666778564453125 -8.0627670288085938 485.496337890625 
-91.666763305664062 -8.3471336364746094 485.496337890625 
-90.33343505859375 -7.8429999351501465 486.9630126953125 
-88.933433532714844 -7.0819334983825684 489.16299438476562 
-88.266769409179688 -8.0335664749145508 486.9630126953125 
-86.066764831542969 -7.7898001670837402 488.09634399414062 
-82.200103759765625 -6.7168002128601074 491.62966918945312 
-79.933433532714844 -6.9462332725524902 491.496337890625 
-76.666763305664062 -7.263033390045166 491.36300659179688 
-74.60009765625 -6.7248001098632812 493.29632568359375 
-71.066764831542969 -7.0195331573486328 493.22967529296875 
-68.866767883300781 -7.8145999908447266 491.56298828125 
-65.666763305664062 -8.8171663284301758 490.0296630859375 
-63.533432006835938 -8.0664329528808594 492.56298828125 
-59.800098419189453 -8.7313671112060547 491.69631958007812 
-57.733432769775391 -7.3986001014709473 495.22967529296875 
-53.133464813232422 -7.7473664283752441 495.16299438476562 
-49.266799926757812 -8.7914667129516602 493.42965698242188 
-45.666831970214844 -8.0151329040527344 496.16299438476562 
-43.733467102050781 -8.4330663681030273 495.42965698242188 
-41.533466339111328 -7.3837332725524902 498.42965698242188 
-39.533466339111328 -8.5077667236328125 496.09634399414062 
-35.733467102050781 -7.9594664573669434 498.29632568359375 
-32.733467102050781 -6.5830001831054688 502.36300659179688 
-29.266799926757812 -6.6390666961669922 502.82968139648438 
-27.933465957641602 -6.5239667892456055 503.42965698242188 
-25.133432388305664 -8.7296667098999023 499.16299438476562 
-22.333467483520508 -8.454533576965332 500.496337890625 
-19.733499526977539 -10.63093376159668 496.42965698242188 
-18.533533096313477 -8.6788330078125 500.62966918945312 
-17.333499908447266 -11.191466331481934 495.82968139648438 
-17.133466720581055 -13.600000381469727 491.29632568359375 
-17.266767501831055 -14.410266876220703 490.16299438476562 
-15.666767120361328 -16.997833251953125 487.68365478515625 
-17.133432388305664 -19.0093994140625 484.95034790039062 
-15.666799545288086 -24.79913330078125 480.37033081054688 
-19.000133514404297 -26.465799331665039 478.13568115234375 
-19.466800689697266 -30.200000762939453 475.06134033203125 
-18.333467483520508 -35.666667938232422 472.60400390625 
-14.80013370513916 -38.333332061767578 472.22833251953125 
-11.133466720581055 -35 474.63265991210938 
-14.066766738891602 -41.266666412353516 471.1090087890625 
-15.533466339111328 -44.466667175292969 469.76531982421875 
-12.40013313293457 -45.799999237060547 470.27700805664062 
-11.533466339111328 -49.533332824707031 469.66400146484375 
-11.600166320800781 -52.666671752929688 469.20632934570312 
-8.9335002899169922 -54.600009918212891 469.66232299804688 
-8.4667997360229492 -53.400001525878906 469.90567016601562 
-9.200200080871582 -56.20001220703125 469.44134521484375 
-8.4668331146240234 -57.333347320556641 469.59466552734375 
-7.0668001174926758 -57.533351898193359 469.96832275390625 
-6.8667664527893066 -59.733352661132812 469.91000366210938 
-7.7334332466125488 -61.333347320556641 469.65899658203125 
-8.600132942199707 -60.133346557617188 469.45498657226562 
-11.66683292388916 -60.600006103515625 468.6126708984375 
-14.000166893005371 -63.533348083496094 468.02398681640625 
-12.733467102050781 -67.600021362304688 468.83432006835938 
-17.000133514404297 -72.466682434082031 468.47067260742188 
-21.20013427734375 -72.666679382324219 467.39199829101562 
-26.266767501831055 -78.533332824707031 467.50466918945312 
-29.600099563598633 -77.866668701171875 466.419677734375 
-32.333465576171875 -79.133331298828125 466.02932739257812 
-34.733467102050781 -81.666664123535156 466.20468139648438 
-37.400135040283203 -77.266670227050781 464.20166015625 
-41.000099182128906 -77.000007629394531 463.14633178710938 
-42.066764831542969 -81.666664123535156 464.2276611328125 
-44.400100708007812 -81.800003051757812 463.63101196289062 
-44.33343505859375 -84.266670227050781 464.50732421875 
-45.800098419189453 -80.066665649414062 462.60833740234375 
-48.466766357421875 -81.333335876464844 462.27532958984375 
-49.933433532714844 -78.666664123535156 461.0260009765625 
-52.000099182128906 -77.800003051757812 460.21133422851562 
-54.133434295654297 -79.466667175292969 460.111328125 
-54.400100708007812 -82.866668701171875 461.21466064453125 
-56.866767883300781 -83.533332824707031 460.76632690429688 
-57.800132751464844 -80 459.30233764648438 
-59.200164794921875 -78.400001525878906 458.46334838867188 
-61.733467102050781 -79.800003051757812 458.17965698242188 
-64.800102233886719 -82.466667175292969 458.14999389648438 
-66.866798400878906 -81.266670227050781 457.18600463867188 
-69.000167846679688 -81 456.51800537109375 
-71.20013427734375 -83.333335876464844 456.72100830078125 
-73.933464050292969 -83.666664123535156 456.08334350585938 
-76.133430480957031 -85.400001525878906 456.05865478515625 
-78.266799926757812 -84 454.95932006835938 
-79.20013427734375 -83.800003051757812 454.62600708007812 
-80.266799926757812 -81.466667175292969 453.58599853515625 
-81.933464050292969 -80.400001525878906 452.80267333984375 
-82.800132751464844 -75.800010681152344 451.34765625 
-85.200164794921875 -74.000015258789062 450.2449951171875 
-86.800163269042969 -76.73333740234375 450.43765258789062 
-87.333465576171875 -80.533332824707031 451.350341796875 
-89.733436584472656 -81.666664123535156 451.0333251953125 
-91.666763305664062 -83.466667175292969 451.05899047851562 
-92.533432006835938 -80.933334350585938 450.0556640625 
-94.733444213867188 -79.666664123535156 449.05633544921875 
-96.73345947265625 -80.933334350585938 448.85467529296875 
-98.266792297363281 -83.066665649414062 449.12899780273438 
-102.20014190673828 -80.866668701171875 447.35733032226562 
-105.13347625732422 -80.199996948242188 446.34133911132812 
-107.86680603027344 -76.333335876464844 444.44631958007812 
-106.80013275146484 -71.866668701171875 443.91366577148438 
-108.80013275146484 -68.266670227050781 442.677001953125 
-111.53347015380859 -70.066680908203125 442.1546630859375 
-112.93345642089844 -71.66668701171875 442.0013427734375 
-113.13346099853516 -69.333358764648438 441.56900024414062 
-114.60011291503906 -66.866683959960938 440.88766479492188 
-116.93343353271484 -66.333343505859375 440.19168090820312 
-119.06676483154297 -68.733352661132812 439.86734008789062 
-121.53343200683594 -74.66668701171875 440.427001953125 
-125.66676330566406 -76.666671752929688 439.70932006835938 
-128.06680297851562 -79.666664123535156 439.69534301757812 
-129.40013122558594 -81.800003051757812 439.95632934570312 
-129.20010375976562 -84.733329772949219 441.03134155273438 
